# .PCD v0.7 - Point Cloud Data file format
VERSION 0.7
FIELDS x y z rgb normal_x normal_y normal_z curvature
SIZE 4 4 4 4 4 4 4 4
TYPE F F F U F F F F
COUNT 1 1 1 1 1 1 1 1
WIDTH 497
HEIGHT 1
VIEWPOINT 0 0 0 1 0 0 0
POINTS 497
DATA ascii
-0.27496696 0.72562808 0.0010918215 4288387995 0.00068296312 -0.00032583694 0.99999946 1.6804728e-07
-0.22572035 0.72538453 0.0017180354 4288387995 0.0015232874 -0.0010438347 0.99999589 6.8131534e-08
-0.17438065 0.72439092 0.0014514279 4288387995 0.00088317803 -0.00058034487 0.99999905 2.4269079e-07
-0.12552719 0.72308916 0.0015641067 4288387995 0.0010745514 -0.00061675615 0.99999887 7.2636773e-08
-0.075107381 0.7240538 0.0022234307 4288387995 0.0012772481 -0.0011186193 0.99999708 1.0013927e-08
-0.027627818 0.72611731 0.0025434177 4288387995 0.00090593495 -0.00079157477 0.99999851 1.4622592e-08
0.025949061 0.72646713 0.0028111651 4288387995 0.00087210973 -0.0012122411 0.99999344 1.8752177e-08
0.076167531 0.72531444 0.0028854094 4288387995 0.00068142661 0.0019804451 0.99996579 2.1376298e-08
0.12556322 0.72429895 0.0026495697 4288387995 0.0020000045 -0.049868431 0.93789625 2.5938878e-08
0.17457829 0.7255711 0.0023592799 4288387995 0.00098503928 -0.018569767 0.99648607 3.7338829e-08
0.22429985 0.7258144 0.0024704908 4288387995 0.0016404757 -0.042181209 0.96390361 8.0090835e-08
0.27354857 0.72632766 0.0023456097 4288387995 0.0012436052 -0.018695986 0.99622226 3.1949391e-08
0.32475272 0.72439486 0.0023734632 4288387995 0.00076510571 -0.0025467032 0.99995613 5.5144866e-08
0.37471882 0.72692937 0.0022130273 4288387995 0.00098491332 -0.019672021 0.9976415 4.8280498e-08
0.42533103 0.72464746 0.0022521811 4288387995 0.001628432 -0.043048248 0.94697779 2.3361059e-08
0.47403452 0.72345811 0.0025175605 4288387995 0.0017423898 -0.044712346 0.96201944 5.0297352e-08
0.52578545 0.7256549 0.0022499526 4288387995 0.00037361326 -0.00085903006 0.99999708 4.9101853e-08
0.57612181 0.7258848 0.0022859075 4288387995 0.0007124627 -0.020186296 0.99619776 5.8302501e-08
0.62584651 0.72759128 0.0022392049 4288387995 0.00027895044 -0.00062211714 0.99999058 8.8072404e-08
0.67708999 0.72562754 0.0021901054 4288387995 0.00011296012 -0.0010374087 0.99999356 4.7804548e-08
0.72401506 0.72626537 0.0022194495 4288387995 0.0019873152 -0.074916117 0.95328581 5.7976091e-08
0.77647156 0.72624791 0.0021483535 4288387995 0.003016006 -0.098581061 0.95943201 5.557883e-08
0.82723683 0.72539055 0.0021248779 4288387995 0.0011962894 -0.038267516 0.98401421 1.3561577e-08
0.87840635 0.72573489 0.0020328062 4288387995 0.0012233694 -0.035103109 0.98835212 1.3607594e-07
0.9250899 0.72483027 0.0020857782 4288387995 -4.416192e-05 -0.00060786086 0.99999803 8.0477186e-08
0.97536403 0.72590292 0.0015733419 4288387995 0.00063887361 -0.0010845447 0.99999309 8.3632266e-08
1.0254441 0.72524625 0.0019625893 4288387995 0.00031049093 -0.001602413 0.99998003 1.0959462e-07
1.0706772 0.72757268 0.0015734993 4288387995 -2.2078864e-05 -0.00031976434 0.99999911 1.0412126e-07
1.1273009 0.72429931 0.0014006661 4288387995 -0.0014710512 -0.00037192853 0.99999875 1.0812568e-07
1.1757762 0.72553217 0.0015641287 4288387995 -0.0032974018 0.0020130703 0.99988157 1.8242959e-07
1.224529 0.72521746 0.0010620543 4288387995 -0.0012125504 0.00042051863 0.99999911 2.1276985e-07
1.2750239 0.72449523 0.0010505707 4288387995 -0.0012880159 0.00031790594 0.99999911 1.3508699e-07
1.3246106 0.7244547 0.0012101961 4288387995 -0.0041983793 -0.00012254859 0.99996763 1.5884561e-07
1.3748734 0.72554404 0.0012457148 4288387995 -0.0012703122 0.00030896699 0.99999911 1.5640788e-07
1.4253044 0.72552037 0.0013047125 4288387995 -0.0012212106 0.00038986059 0.99999899 1.0841435e-07
1.4749153 0.72562879 0.0013779107 4288387995 -0.0013916723 0.00030937477 0.99999887 1.0663789e-07
1.5269268 0.72582603 0.001652927 4288387995 -0.0089401556 -0.00061612029 0.99936014 1.2938155e-07
1.5755608 0.72524512 0.0015883209 4288387995 -0.0015429615 0.00066746777 0.99999827 8.2991512e-08
1.624598 0.72420973 0.0016966644 4288387995 -0.0014114719 0.00074135984 0.99999815 9.0592103e-08
1.6748612 0.72528619 0.0015983911 4288387995 -0.0012023607 0.00034570831 0.99999857 8.0874706e-08
1.7255757 0.7256285 0.0016698429 4288387995 -0.004290482 -0.00024093343 0.99988824 1.0744693e-07
1.7750257 0.72588831 0.0016875593 4288387995 -0.0015193955 0.00038415592 0.99999839 1.6431362e-07
1.825089 0.72561157 0.0018149852 4288387995 -0.0014222346 0.00039448685 0.99999738 9.9224174e-08
1.875939 0.72583658 0.0017054412 4288387995 -0.0013908537 0.00036293871 0.99999857 1.2199425e-07
1.9249275 0.7245397 0.0016960268 4288387995 -0.0013728084 0.00034913846 0.99999863 1.2276543e-07
1.9749771 0.72527987 0.0018425572 4288387995 -0.0061345934 -0.0005972769 0.99990308 8.5335017e-08
2.0251155 0.72491187 0.0020673575 4288322202 -0.002792452 3.7391565e-05 0.99996382 8.442894e-08
2.0752389 0.72610456 0.0021193421 4288387994 -0.0018990195 0.0002565321 0.99999744 7.4787366e-08
2.1254792 0.72524309 0.0020276594 4288387995 -0.0013842579 0.00036823904 0.99999881 8.0537468e-08
2.174196 0.72569013 0.0022298882 4288322458 -0.0029132683 0.00073499349 0.99998254 5.3043905e-08
2.2250633 0.7261095 0.0022914386 4288387995 -0.016798088 0.0095437486 0.9956947 8.0958593e-08
2.2749665 0.72547591 0.002659305 4288322202 -0.0024239535 0.00028937554 0.99999231 5.1986301e-08
2.3244894 0.72521901 0.0019355067 4288387739 -0.0049180537 0.0022939129 0.91693848 1.1469903e-07
2.375176 0.7256723 0.0022592868 4288322202 -0.012096263 0.0038431531 0.99847502 8.1352532e-08
2.4222744 0.72539508 0.0017274831 4288387995 -0.012167594 -0.0011811908 0.99969846 0.00017705336
2.4784052 0.72925138 0.010481331 4284966759 -0.4091295 -0.20292735 0.62717706 0.016011279
2.5196996 0.72186923 0.024085574 4279374354 -0.83961445 -0.48499882 0.10927603 0.015984051
-2.5046973 0.76345271 0.026904097 4280229663 0.85302156 -0.49559489 0.080373876 0.014532936
-2.477448 0.77831447 0.024421258 4280229663 0.86039037 -0.48624435 0.071178891 0.0092272339
-2.4217887 0.7740339 0.0034322366 4288322202 0.18749405 -0.096599326 0.97741592 0.006682436
-2.3859811 0.77640468 0.0040965839 4288322202 0.15382178 -0.012598542 0.98583913 0.010667319
-2.3258519 0.77352685 0.0171223 4283782485 0.59994346 -0.26601133 0.35186166 0.0012377922
-2.2779434 0.77543771 0.0025839941 4288387995 0.0266727 -0.010631591 0.9978267 0.0018470606
-2.2311394 0.78068733 0.0037539215 4288322202 0.031177254 -0.012452037 0.99688756 0.0025460147
-2.1648426 0.76915157 0.003141412 4288387995 0.0018857662 -0.0010592195 0.99999732 0
-2.1285219 0.77397323 0.0035659599 4288256409 0.001909195 -0.00053290883 0.9999969 0
-2.0697253 0.77366686 0.003865903 4288387995 0.002468379 -0.00040236706 0.99997932 1.5662252e-08
-2.0359254 0.77750492 0.0025280411 4288387995 0.001132805 -0.00088459009 0.99999821 4.0487713e-08
-1.9734499 0.77521199 0.0045243646 4288387995 0.030896399 -0.016496014 0.99885559 0
-1.9189242 0.7640397 0.0015833374 4288387995 0.00046494487 -0.00096122309 0.99999923 7.9414813e-09
-1.8775963 0.78336835 0.0021370107 4288387995 0.00056936016 -0.0013264046 0.99999881 3.1309639e-08
-1.8392599 0.79488206 0.0024766908 4288387995 0.0006305509 -0.0015456565 0.99999857 5.1963472e-08
-1.7649764 0.76591855 0.0022031823 4288387995 0.0031650616 -0.002108488 0.99997157 7.9775644e-09
-1.7236392 0.77606958 0.0048875553 4288387995 0.040962003 0.0017708906 0.99671227 2.3054982e-08
-1.6696472 0.78304815 0.0032937636 4288387995 0.00097264565 -0.00090487179 0.99999857 2.1296655e-08
-1.6299649 0.76303202 0.0011842285 4288387995 0.00041474812 -0.00078568159 0.9999994 0
-1.5709662 0.77516836 0.0030294412 4288387995 0.00098700239 -0.001195379 0.99998546 2.3386329e-08
-1.5294437 0.77889693 0.001444014 4288387995 0.00046852822 -0.00097278703 0.99999917 0
-1.4696722 0.75879669 0.0021874646 4288387995 0.00062898733 -0.0015504683 0.99999863 5.1998637e-08
-1.4270685 0.77263099 0.0049263048 4288387995 0.00023993562 -0.0010620665 0.99994445 0
-1.3721596 0.78890079 0.0018703103 4288387995 -0.0003459595 -0.0008190138 0.99999863 6.7759679e-08
-1.3227286 0.7755782 0.00085106003 4288387995 -0.0012195875 -0.0007237441 0.99999887 2.2033352e-07
-1.27364 0.77383566 0.00093544537 4288387995 -0.0012610303 -0.00072998047 0.99999887 1.1490881e-07
-1.22281 0.77419251 0.0018210382 4288387995 0.054459408 0.0051066689 0.94980168 1.8616892e-07
-1.1755065 0.77406979 0.0020708449 4288387995 -0.00073843583 -0.010967086 0.9988358 0.0013563005
-1.1248591 0.7717275 0.01100689 4288387995 0.095920749 -0.35386845 0.70046192 0.015675208
-1.0739355 0.77731287 0.01559567 4288387995 0.27881062 -0.51788855 0.45818424 0.0086668767
-1.0292761 0.77834183 0.0070943977 4288387995 0.19649763 -0.17479242 0.79510552 0.0062409737
-0.97463304 0.77533489 0.0020046176 4288387995 0.0089647966 -0.0037978825 0.99974698 0.00078863249
-0.92433107 0.77518499 0.0021096177 4288387995 0.00098268222 -0.0022350396 0.99995154 4.1740783e-08
-0.87955946 0.77315354 0.0020211393 4288387995 0.00048712373 -0.0021116449 0.99998087 5.1958624e-09
-0.82281697 0.77245885 0.0028069627 4288387995 0.00026015867 -0.0016965875 0.99997228 1.5897305e-08
-0.77434742 0.77410805 0.0020714477 4288387995 0.00097562122 -0.0075691058 0.99965948 1.5871384e-08
-0.72238845 0.77442354 0.0018108193 4288387995 0.0038262543 -0.061047167 0.74083477 3.376293e-08
-0.67506886 0.77477568 0.0019696814 4288387995 0.0023453205 -0.0014809648 0.99998283 9.1390092e-08
-0.62573457 0.77687502 0.0019789343 4288387995 0.048079196 -0.011395646 0.95486087 5.3072643e-08
-0.57470065 0.77493906 0.0016684467 4288387995 0.0032303582 -0.042908449 0.95946246 6.0486087e-08
-0.52475941 0.77579254 0.0019784053 4288387995 0.0020095995 -0.0040308526 0.99989372 4.6417387e-08
-0.47529125 0.77276248 0.0016734881 4288387995 -0.00078431517 -0.0027578836 0.999946 8.8436487e-08
-0.42522958 0.77510744 0.0018320845 4288387995 0.0033643462 -0.0023849127 0.99993342 5.3038722e-08
-0.37437043 0.7780453 0.0015630911 4288387995 0.075574808 -0.058580846 0.91297942 1.239587e-07
-0.32515869 0.77590859 0.0016529611 4288387995 0.00079769478 -0.0021033727 0.99997526 1.2586948e-07
-0.27444759 0.77504808 0.0012508275 4288387995 0.00057011849 -0.0030803783 0.99992514 1.7327403e-07
-0.22470391 0.77455389 0.0015482806 4288387995 0.00090259052 -0.00051210058 0.99999595 1.9762274e-07
-0.17587031 0.77595031 0.0015874252 4288387995 0.00079931668 -0.0015676519 0.9999578 1.31188e-07
-0.12340551 0.77501702 0.0017956516 4288322202 0.00099531189 -0.0010092251 0.99999845 1.1389754e-07
-0.075138189 0.77466935 0.0016858216 4288387995 0.0011482289 -0.00081600167 0.99999869 5.9568723e-08
-0.027561503 0.77512074 0.002237478 4288387995 0.0018017899 -0.001838087 0.99995148 0
0.025437346 0.77611542 0.0022848619 4288387995 0.0011893256 -0.00017247323 0.99999863 1.6778872e-08
0.079200312 0.77811277 0.0023872382 4288387995 0.00091735902 -3.1757096e-05 0.99999857 9.619594e-09
0.12630005 0.77372241 0.002418923 4288387995 0.00080361037 -0.00036703813 0.99999881 3.3771848e-08
0.17282246 0.77643138 0.0021893631 4288387995 0.00086857396 -0.00018491887 0.99999893 3.4628822e-08
0.22502197 0.77674377 0.002047291 4288387995 0.00065970566 -0.00030612972 0.99999911 5.176442e-08
0.27496266 0.77754766 0.0019505852 4288387995 0.00050732912 -2.3843637e-05 0.99999923 5.5531626e-08
0.3269572 0.77434015 0.0019197683 4288387995 0.00038081556 2.8551318e-05 0.99999899 5.9187759e-08
0.3761245 0.77412331 0.0019290916 4288387995 0.00022498256 -6.5929496e-05 0.99999917 8.0674802e-08
0.4249444 0.77521616 0.0019501925 4288387995 0.00034217903 0.00025369463 0.99999946 3.2285673e-08
0.47374406 0.77722657 0.0019815746 4288387995 0.0002341475 0.00020468731 0.99999911 4.0590656e-08
0.52436352 0.77472752 0.0018818155 4288387995 0.00028400143 0.00017835149 0.99999911 2.7081994e-08
0.57668126 0.77405751 0.0018459558 4288387995 0.00029549323 0.00029446781 0.99999934 9.6859843e-08
0.62668192 0.77400172 0.0017923461 4288387995 0.00033162232 0.00040737321 0.99999893 5.5174684e-08
0.67490774 0.7730878 0.0019297549 4288387995 -4.8276729e-06 0.00014715386 0.99999911 4.1236415e-08
0.72541094 0.77604824 0.0018183797 4288387995 4.7945261e-05 9.4930583e-05 0.99999857 8.2292019e-08
0.77477461 0.77357578 0.0017216596 4288387995 0.00037180432 0.00027311299 0.99999899 8.4461156e-08
0.82537216 0.77433854 0.0017727647 4288387995 0.00024113106 -2.5209854e-05 0.99999911 7.3712364e-08
0.87495506 0.77699238 0.0013750847 4288387995 0.00082182465 -0.00023788369 0.99999887 1.0109713e-07
0.92676967 0.77344573 0.0016873596 4288387995 0.00023411415 -6.9091757e-06 0.9999994 6.9506015e-08
0.97285175 0.77538431 0.0015596842 4288387995 0.00024839432 -0.00017863358 0.99999928 7.0153014e-08
1.0255075 0.76845318 0.0016288573 4288387995 0.00061997189 -0.018803297 0.99727154 4.0725261e-08
1.0774648 0.77479029 0.0023372979 4288322202 -0.00092706695 -0.00047102213 0.99999899 5.2221427e-08
1.124548 0.77586001 0.0014062114 4288387995 -0.0014405289 -0.00034668454 0.99999869 7.8904911e-08
1.1752137 0.77485949 0.0013143505 4288387995 -0.001412048 -0.00015874329 0.99999887 8.1828027e-08
1.225177 0.77508378 0.0010273315 4288322202 -0.0012752818 0.00026197534 0.99999893 1.9033456e-07
1.2749839 0.77446818 0.001114285 4288322202 -0.0013734545 0.00014218045 0.99999923 1.652988e-07
1.3250846 0.77470237 0.0012578655 4288387995 -0.00320267 -0.00013154215 0.99997652 1.6205686e-07
1.375206 0.77547181 0.0012828809 4288387995 -0.0014087951 0.00012095337 0.99999911 1.4909151e-07
1.4257615 0.77563453 0.0013594714 4288387995 -0.0013155348 0.0002003096 0.99999917 1.753079e-07
1.4752104 0.77525949 0.001445797 4288387995 -0.0014845396 0.00023748307 0.99999875 1.1890091e-07
1.5250831 0.77524787 0.0016594321 4288387995 -0.0013950479 0.0003202518 0.99999762 9.0953591e-08
1.5751649 0.7760424 0.0014879842 4288387995 -0.0014502588 0.00061938353 0.99999833 1.0346303e-07
1.6248369 0.7741828 0.0015909178 4288387995 -0.0014420656 0.00057509117 0.99999863 1.3857999e-07
1.6751934 0.77562958 0.001743007 4288387995 -0.0014081929 0.00045281128 0.99999857 1.1422246e-07
1.7249929 0.77515495 0.0016456732 4288387995 -0.0008142431 0.00038473096 0.99999619 1.2982507e-07
1.7758775 0.7753877 0.0018179285 4288387995 -0.0021291596 -0.00036777472 0.99998456 1.1594643e-07
1.8248445 0.77500725 0.001682334 4288387995 -0.0013817772 0.00058534241 0.99999857 1.265919e-07
1.8758273 0.7749086 0.0017984256 4288387995 -0.0014238199 0.00057684892 0.99999863 1.0475229e-07
1.9249024 0.77563572 0.0019242723 4288322202 -0.0028392805 0.00029721283 0.99997741 1.0202808e-07
1.9756392 0.77560663 0.0019546929 4288387995 -0.0042628185 -3.1127653e-05 0.99989694 9.4654546e-08
2.0249352 0.77483279 0.0024234289 4288387995 -0.0019356022 0.00013755131 0.99999368 7.1716379e-08
2.0755355 0.77392715 0.001937308 4288387995 -0.0020479781 0.00083408662 0.99999326 8.9072735e-08
2.1256161 0.77526766 0.002081661 4288387995 -0.0036090584 0.00079519098 0.99988997 7.7874411e-08
2.1758959 0.77522212 0.0023682218 4288387738 -0.0076511595 0.00097218034 0.99944443 3.7333109e-08
2.2263434 0.77593988 0.0021627455 4288322202 -0.01118819 0.0053897966 0.99870557 4.1649319e-08
2.2750022 0.77453327 0.0017300671 4288387995 -0.0014986183 -0.00060689903 0.99999827 1.1835171e-07
2.3255491 0.77411914 0.0019518374 4288387995 -0.0049412264 0.0023366115 0.9997806 6.4795202e-08
2.3750896 0.77345854 0.0019859821 4288387995 -0.017844804 0.0035853665 0.99941295 8.6909022e-05
2.4245598 0.77614409 0.0020279842 4288322202 -0.092375673 -0.006353599 0.98718596 0.0064724931
2.4796906 0.77646327 0.021785803 4280427042 -0.78788638 -0.44333926 0.15903223 0.010679167
2.505631 0.76173788 0.02622425 4279111182 -0.86228675 -0.50267005 0.023467081 0.0037976871
-2.4632633 0.81939423 0.025438167 4279703319 0.86516243 -0.49863219 0.023090977 0.0056766272
-2.4314456 0.83121938 0.019167611 4282203453 0.75255471 -0.40698221 0.24672782 0.014001526
-2.3729739 0.8263855 0.003826139 4288387995 0.15436311 -0.046142239 0.98449171 0.0071949447
-2.3202083 0.8183614 0.013891426 4284835173 0.46256176 -0.1898277 0.53417259 0.00073286222
-2.2653391 0.82336116 0.0035267777 4288322202 0.10253358 -0.083206572 0.72954446 0
-2.2281058 0.82062465 0.0035439983 4288387995 0.035399701 -0.014509294 0.99614888 0.0040596416
-2.1825013 0.81919223 0.0033417381 4288387995 0.0014476872 -0.0016421465 0.99999636 0
-2.1255891 0.82642633 0.0031313673 4288387995 0.0024935887 -0.00064384571 0.99998975 1.1615711e-08
-2.0696824 0.83047563 0.0064569721 4288322202 0.0021946896 -0.00052330794 0.99995106 1.746556e-08
-2.0251603 0.8230285 0.0040122652 4288387995 0.0034245844 -0.0014922465 0.99998915 7.579834e-08
-1.967465 0.81301969 0.0031434144 4288387995 0.003870649 -0.0029392971 0.99997234 4.8177601e-08
-1.9315889 0.83480114 0.0034369291 4288387995 -0.0045958385 0.0017513593 0.9999584 0
-1.89465 0.8450129 0.0025890875 4288387995 0.0006320196 -0.0015481669 0.99999857 0
-1.8129234 0.80533266 0.0024760992 4288387995 0.00063086365 -0.0015445678 0.99999863 0
-1.771212 0.82188147 0.0024754172 4288387995 0.00062850851 -0.0015389274 0.99999869 0
-1.7233919 0.82381272 0.0049241399 4288387995 0.0076676067 -0.0031937473 0.99993294 0
-1.6844941 0.82591188 0.0042636003 4288387995 0.013046561 -0.0041265991 0.99980921 0
-1.6256342 0.81362593 0.0023707238 4288387995 0.00063126272 -0.001546827 0.99999869 9.5326314e-08
-1.5763986 0.83318722 0.0023698383 4288387995 0.00063114951 -0.0015466899 0.99999857 9.9048194e-08
-1.5346898 0.82204038 0.0033881161 4288387995 -0.0048410478 0.0021708279 0.99993581 7.1732543e-08
-1.4745258 0.81294793 0.0022743167 4288387995 0.00063008425 -0.0015478143 0.99999857 0
-1.4269934 0.82515049 0.0060251681 4288387995 0.012416986 0.00010042892 0.63636297 1.7738952e-05
-1.3751997 0.82642776 0.0011806745 4288387995 -0.0026578028 -0.00020136168 0.99996537 1.5280067e-07
-1.3248758 0.82446891 0.0008652074 4288387995 -0.0014285198 -0.00080165529 0.99999869 1.7077261e-07
-1.2749187 0.82549948 0.00093782216 4288387995 -0.0014355239 -0.00080848532 0.99999875 2.0950893e-07
-1.2219315 0.82354355 0.0021291815 4288387995 0.040116694 -0.031629816 0.98713672 0.00049873872
-1.1730607 0.82245195 0.0017718513 4288387995 0.026759302 -0.022770906 0.98981422 0.0003081249
-1.1232657 0.82531148 0.0017465812 4288387995 0.0040716315 -0.0019300376 0.99980009 5.5981474e-08
-1.0749518 0.82460302 0.0017709957 4288387995 -0.00060450227 -0.00014623546 0.99999899 9.8060646e-08
-1.0202066 0.82422352 0.020460177 4288387995 0.5617398 -0.37750477 0.37500647 0.001006955
-0.97411239 0.82475322 0.0012126619 4288387995 0.026823046 -0.011714698 0.99848568 0.0037270794
-0.92548865 0.82252532 0.0015775536 4288387995 0.049419459 -0.021659236 0.95406997 2.2598659e-08
-0.87402898 0.82721806 0.0018826902 4288387995 0.0023571185 -0.0085741505 0.99975002 7.7358095e-08
-0.82895279 0.82693994 0.0019398546 4288387995 0.0021106447 -0.0049629607 0.99978983 7.0693908e-08
-0.77204388 0.82686186 0.0018238316 4288387995 0.0018853946 -0.00069917581 0.9999842 4.194494e-08
-0.72610778 0.82438523 0.0013684069 4288387995 0.00033648408 0.00050281722 0.99999881 6.4126937e-08
-0.67247772 0.82481462 0.0019420392 4288387995 0.0050729858 0.0010451719 0.9999277 5.1810815e-08
-0.62212569 0.82443178 0.0014646156 4288387995 -0.0008114191 0.00042301658 0.99994075 4.7054353e-08
-0.57411039 0.82612205 0.0014006614 4288387995 0.00088257989 0.0001080371 0.99999601 8.7874724e-08
-0.52583081 0.82332283 0.0019007149 4288387995 0.00057697285 0.00062709703 0.99999595 7.334441e-08
-0.47356737 0.82470298 0.0015046496 4288387995 -0.00032130192 0.0007507613 0.99998701 1.3426033e-07
-0.42436564 0.82345808 0.0016906467 4288387995 0.00071158464 0.00027636316 0.99999917 1.0296743e-07
-0.37487212 0.82548279 0.0014930005 4288387995 0.0040106783 -0.0027498759 0.99984622 1.4473095e-07
-0.32518542 0.82471764 0.0016088025 4288387995 0.0045745121 -0.001444242 0.99984473 1.4394836e-07
-0.27527654 0.82494837 0.00098011596 4288387995 0.00043604514 -0.00012226144 0.99999958 1.1756038e-07
-0.22509192 0.82482249 0.001221125 4288387995 0.00074059312 -0.00043765202 0.99999952 1.4206142e-07
-0.17403862 0.82509702 0.001213822 4288387995 0.00049419532 -0.00046999083 0.99999624 1.3969759e-07
-0.12530395 0.82461417 0.0017536416 4288387995 0.0010299336 -0.00074185431 0.99999881 5.6318139e-08
-0.07614518 0.82328266 0.0014253542 4288387995 0.0010151773 -0.0023287979 0.99998719 1.187224e-07
-0.026907878 0.82453418 0.00181114 4288322202 0.00030925171 -0.001568675 0.99999064 1.6627295e-05
0.02563893 0.82414359 0.0026431384 4288387995 0.017115563 -0.014054896 0.99893266 0.00046675335
0.076810747 0.82716292 0.0020355044 4288387995 0.00065582804 3.7669764e-05 0.99999905 3.2564287e-08
0.12261014 0.8221699 0.0020552124 4288387995 0.00060295576 -0.00034128505 0.99999917 3.1515466e-08
0.17721964 0.82420599 0.002032273 4288387995 0.00062283257 -0.0003338221 0.99999911 1.709825e-08
0.22258714 0.82465857 0.0019109262 4288387995 0.00043891795 0.00039051229 0.99999905 9.3164267e-08
0.27505681 0.82501638 0.0019015379 4288387995 0.0004330615 0.0003153905 0.99999893 5.8752079e-08
0.3236098 0.82366604 0.0019244044 4288387995 0.00029631468 0.00039312709 0.9999994 4.0843855e-08
0.37577462 0.82487452 0.0019240433 4288387995 0.00031100289 0.00036197237 0.99999952 5.1197684e-08
0.4230926 0.82698375 0.0019141927 4288387995 0.00024591849 0.00061180792 0.99999934 6.932963e-08
0.47387263 0.82631195 0.0018664079 4288387995 0.00054564379 0.0004333829 0.99999917 8.2873967e-08
0.52501285 0.82490432 0.001925153 4288387995 0.00019602638 -5.8227979e-05 0.99999923 4.1466127e-08
0.57531369 0.82378376 0.0018640829 4288387995 0.00017951328 2.778031e-05 0.99999934 6.7350683e-08
0.62325078 0.82494462 0.0018772222 4288387995 0.00011617386 0.0003935979 0.99999911 4.4467818e-08
0.67381597 0.82652813 0.0017815329 4288387995 0.00036496267 0.00018859534 0.99999899 6.9443381e-08
0.72249973 0.82379782 0.0018053422 4288387995 0.00034248928 3.744987e-05 0.99999923 3.5394645e-08
0.77237499 0.82368875 0.0018131153 4288387995 0.00013302182 -9.3515391e-06 0.99999928 6.3509887e-08
0.82711315 0.81996852 0.001460443 4288387995 0.00087053183 8.0672908e-06 0.99999905 1.0541718e-07
0.87505257 0.82647568 0.0017547971 4288387995 0.00027903533 0.00012305996 0.99999946 7.1997036e-08
0.92436475 0.82225496 0.001317706 4288387995 0.0007379881 -0.00038421113 0.99999917 3.1045282e-08
0.98069602 0.81746095 0.0021790022 4288387995 -0.00071406167 -0.00041589577 0.99999893 9.2564505e-08
1.0271324 0.82480031 0.0018739728 4288387995 -0.0011259889 -0.00063608174 0.99999857 8.3634973e-08
1.076129 0.82479584 0.001417998 4288387995 -0.0011295287 -0.00089565752 0.99999875 1.5849976e-07
1.1247883 0.82505631 0.0015022786 4288322202 -0.001365752 -0.00039782241 0.99999869 1.4076598e-07
1.175377 0.82448852 0.0010759532 4288387995 -0.0013160318 -0.00027143594 0.99999881 1.8685685e-07
1.2248237 0.82505172 0.0010061986 4288387995 -0.0010904397 0.0001853353 0.9999994 1.654515e-07
1.2749301 0.82471323 0.0010755593 4288387995 -0.0013740452 0.00015864969 0.99999899 2.9043042e-07
1.3245789 0.82509804 0.0011961389 4288387995 -0.0013228472 0.00018431302 0.99999899 1.5019695e-07
1.3746834 0.82485634 0.0012159368 4288387995 -0.0013226988 0.00017922206 0.99999911 1.6485376e-07
1.4250041 0.82507151 0.0013389613 4288387995 -0.00125493 0.00019555498 0.99999923 1.3399642e-07
1.4745936 0.8263306 0.0014469388 4288387995 -0.0014436758 0.00029046659 0.99999887 1.8302413e-07
1.5245188 0.82411826 0.0015512087 4288387995 -0.0015741871 0.00032853175 0.99999845 1.2137382e-07
1.5752156 0.82449454 0.0016136596 4288387995 -0.0015140899 0.00051060028 0.99999845 9.5168865e-08
1.6246916 0.82500094 0.0015102536 4288387995 -0.0013718449 0.00071318686 0.99999839 1.3180399e-07
1.6753709 0.82618308 0.0016415868 4288387995 -0.0026215622 0.00020317564 0.99997681 1.2941172e-07
1.7243463 0.82487899 0.0018810889 4288387995 -0.0037860826 -3.4663255e-05 0.99997145 1.0557083e-07
1.7752237 0.82499903 0.0017289663 4288387995 -0.0012894614 0.00069699012 0.99999881 1.3659039e-07
1.8250439 0.82511222 0.0018147214 4288387995 -0.0013568203 0.0007043971 0.99999857 9.4004619e-08
1.8747206 0.82464677 0.0018541297 4288322202 -0.001329035 0.00057171192 0.99999881 1.0054181e-07
1.9245925 0.82528275 0.0019593819 4288387995 -0.0012998468 0.0007729379 0.99999863 7.4347923e-08
1.9754002 0.82495707 0.0020878126 4288387995 -0.017733131 0.01005728 0.99520612 7.7916766e-08
2.0244946 0.82581311 0.0020688567 4288387995 -0.0016524947 0.00053685915 0.99999732 9.4184287e-08
2.0759959 0.82512695 0.0020749648 4288387995 -0.0018635155 0.00027927285 0.9999916 9.2098524e-08
2.1247675 0.82570899 0.0020726819 4288387994 -0.0018384882 -1.481425e-05 0.99999678 1.139361e-07
2.1757512 0.82528108 0.0020560652 4288387995 -0.00074744178 -0.00052330835 0.99999678 7.7249126e-08
2.224766 0.82520467 0.0016022599 4288387995 -0.0024658984 7.1038085e-05 0.99998385 8.6174907e-08
2.2742858 0.82482129 0.0016910635 4288387995 -0.017150862 0.0083731199 0.99584943 7.6747618e-08
2.325345 0.82459503 0.0017044969 4288322202 -0.008480018 0.0049038287 0.9994961 2.7703903e-05
2.3741033 0.82408375 0.0020274075 4288322202 -0.047834661 0.014579996 0.99669242 0.0018465754
2.4322052 0.8283658 0.015246625 4283124555 -0.59213835 -0.30270448 0.4529275 0.019891107
2.4645338 0.82191712 0.024740679 4279045389 -0.84948975 -0.49381787 0.069768637 0.011386774
-2.454201 0.85185695 0.028013408 4280032284 0.86197925 -0.50693905 -0.00048620574 0.0020564643
-2.426311 0.87270802 0.024197318 4280163870 0.85001498 -0.47979674 0.064980119 0.0083912052
-2.376735 0.87847394 0.011140541 4285624689 0.46642783 -0.23098834 0.66601992 0.017060563
-2.3275566 0.87845629 0.0027405689 4288387995 0.052110422 0.013993521 0.99632293 0.00073792378
-2.2703245 0.86774766 0.0036799114 4288387995 0.011801639 0.0052440166 0.99969143 0
-2.2323039 0.87540436 0.0029642044 4288387995 0.0012843306 -0.00049870234 0.99999785 0
-2.1769357 0.88113093 0.0039172377 4288387995 0.015011628 -0.0079026679 0.75029296 0
-2.1411948 0.87544233 0.0033740837 4288387995 0.012431957 0.0020228501 0.99977577 0
-2.0703323 0.86900359 0.0065827165 4288387995 0.001117548 -0.00087658252 0.99999815 3.8096974e-08
-2.0297601 0.87552071 0.0038131196 4288322202 0.0028317824 0.0003509071 0.9999848 0
-1.9662113 0.88662696 0.0028831218 4288387995 0.00030427921 -0.0010697636 0.99999744 0
-1.924992 0.8720687 0.0042882827 4288256409 0.05061838 -0.026887124 0.67515248 0
-1.8662575 0.85626107 0.0025885932 4288387995 0.00063428958 -0.0015546953 0.99999857 1.2593409e-07
-1.8239889 0.87300718 0.0025878069 4288387995 0.00063393888 -0.0015535224 0.99999869 0
-1.7777716 0.89131737 0.0025869668 4288387995 0.0006336837 -0.001552485 0.99999857 1.1345446e-07
-1.7212123 0.87091744 0.0066501391 4288387995 0.077135496 -0.020859232 0.72061461 0
-1.6816831 0.87271518 0.0037675621 4288387995 0.0060872091 -0.0022454369 0.99992597 3.1219187e-08
-1.6217642 0.88117743 0.0024726863 4288387995 0.0006322983 -0.0015510222 0.99999857 4.1363709e-08
-1.586071 0.89533848 0.0024720894 4288387995 0.0006276436 -0.0015379774 0.99999875 0
-1.5160872 0.86316979 0.003182641 4288387995 0.0010750153 -0.0011657879 0.99999863 3.2367989e-08
-1.4749296 0.87519562 0.003451338 4288387995 0.0023771741 -0.0011445036 0.99999011 0
-1.4488788 0.87048715 0.0077724666 4288387995 0.002162887 -0.00032067546 0.99999171 0
-1.3708771 0.872154 0.0020379114 4288387995 -0.00041654674 -0.00051459606 0.99999589 1.9160197e-07
-1.3250993 0.8750574 0.00090604776 4288387995 -0.001434101 -0.00080647803 0.99999875 1.8141627e-07
-1.2760688 0.87413239 0.00097568153 4288387995 -0.0014368244 -0.00081365946 0.99999881 1.3766508e-07
-1.2235688 0.87325144 0.0025070214 4288387995 0.0587385 -0.12741606 0.68294871 0.00030028549
-1.1728547 0.87440568 0.0025960871 4288387995 0.19693352 -0.18534991 0.8757171 0.0059002568
-1.1267847 0.87272817 0.0020618089 4288387995 0.027909731 -0.010115271 0.87377453 0.00014233778
-1.0747533 0.87636018 0.0012667532 4288387995 -0.0014250189 -0.00080021337 0.99999881 8.5340453e-08
-1.0200025 0.87313163 0.0079907468 4288322202 0.23145039 -0.073098809 0.80625641 0.0014075604
-0.9846313 0.87658483 0.015653437 4288387995 0.53779745 -0.11432198 0.47577766 0.003286954
-0.92174137 0.87689525 0.0019001832 4288387995 0.00041603076 -0.00022743092 0.99999756 5.2765035e-08
-0.87276822 0.87249595 0.0019917986 4288387995 0.0003661332 -0.00023955204 0.99999857 4.1271893e-08
-0.82329708 0.8766222 0.0027591821 4288387995 0.0034714462 -0.00047013874 0.99991822 4.4617604e-08
-0.77270001 0.87515503 0.0016721132 4288387995 0.00033989921 0.00026940418 0.99999911 2.7631211e-08
-0.72535598 0.87294948 0.0018199018 4288387995 0.0013405822 0.00050589751 0.99999183 5.1982646e-08
-0.67348665 0.87384206 0.0016176599 4288387995 0.0009208034 4.0660601e-05 0.99998111 7.6368742e-08
-0.62688386 0.87599123 0.0013020337 4288387995 0.0015044925 -0.0060668071 0.99980623 1.1766021e-07
-0.57638401 0.87613118 0.0016827906 4288387995 0.0019725922 0.00021662581 0.99995059 4.1968708e-08
-0.52379173 0.87535441 0.0014206914 4288387995 0.00091263297 -0.001627146 0.99998248 2.2860226e-08
-0.47545305 0.87604123 0.0011944225 4288387995 0.00044126497 -6.7902016e-05 0.99999672 1.0843812e-07
-0.4249509 0.87478638 0.0018227838 4288387995 0.041122641 -0.012252854 0.95898098 1.546145e-07
-0.37489524 0.87591714 0.0012250656 4288387995 0.00040989849 0.0003498396 0.99999934 6.4543848e-08
-0.32544664 0.87658197 0.0018242872 4288387995 0.0036222171 -0.00079964451 0.9998222 1.0476268e-07
-0.27499583 0.87503606 0.0009839196 4288387995 0.00050709606 -0.00018758507 0.99999958 1.3215066e-07
-0.22477974 0.87473375 0.0010237446 4288387995 0.00055708992 -0.00033752309 0.99999976 1.5198397e-07
-0.17532007 0.87482095 0.00086147827 4288387995 0.00056744786 -0.00053291803 0.9999997 1.6237597e-07
-0.1243627 0.87470055 0.0021901675 4288387995 0.057766926 -0.051587369 0.97655934 0.00079024961
-0.075236067 0.88120383 0.012175369 4288322202 -0.059087411 -0.36154258 0.64389515 0.0013778696
-0.025974132 0.88135386 0.013968879 4288322202 0.066123597 -0.37050897 0.63952935 0.0011019295
0.025580209 0.88307887 0.0072612432 4288387995 0.053000383 -0.16682748 0.87041116 0.002862802
0.07533782 0.87376624 0.0024934064 4288387995 0.0051054605 -0.022405844 0.99888062 0.00057388755
0.12684606 0.87365019 0.0021497007 4288322202 0.00060676178 -0.0032805039 0.99995905 7.6208998e-08
0.17359544 0.87577623 0.0026075684 4288387995 0.00039724592 -0.00016495315 0.99998754 2.6240402e-08
0.22693205 0.87764221 0.0021748978 4288387995 0.00048337542 -0.00092047459 0.99999046 1.1408051e-08
0.27474901 0.87486506 0.0021236895 4288387995 0.00036589257 -0.0024156959 0.99996573 7.0092895e-08
0.3242428 0.87446141 0.0020823013 4288387995 0.00030869033 0.00089085643 0.99999791 3.2732469e-08
0.37664187 0.8751173 0.0020681769 4288387995 0.00032039036 -1.270542e-05 0.99999911 3.1244994e-08
0.42340425 0.8785609 0.0019753599 4288387995 0.00080037286 -0.018279303 0.9961133 7.548082e-08
0.47413674 0.88003969 0.0018776099 4288387995 0.00018540892 0.00057296437 0.99999911 9.2061917e-08
0.52311629 0.87749994 0.0018314505 4288387995 0.00050294405 2.8452658e-05 0.99999911 4.6502496e-08
0.57535243 0.87474823 0.0019346796 4288387995 0.00013124464 0.00019652824 0.99999911 6.7382921e-08
0.62546492 0.87589729 0.0017753483 4288387995 0.00035552293 0.00029928496 0.99999928 9.0980308e-08
0.67482573 0.87497777 0.0017780781 4288387995 0.00035596234 0.00045380014 0.99999923 7.1838365e-08
0.72443891 0.87558603 0.0017829279 4288387995 0.00017680292 0.00043005199 0.99999928 9.8272622e-08
0.77044094 0.87356329 0.0016800886 4288387995 0.00055119657 -1.979698e-05 0.99999917 1.0235267e-07
0.82299525 0.87467128 0.0017732172 4288387995 0.00018046385 0.00012875497 0.99999923 1.6641124e-08
0.87340683 0.87514371 0.0016439002 4288387995 0.00054014119 -0.00040143941 0.99999893 6.7498014e-08
0.9253304 0.87631947 0.0025532912 4288387995 -0.0011174906 7.9549929e-05 0.99999869 0
0.97847205 0.87477165 0.001593043 4288387995 -0.0010396033 -0.0010481757 0.99999881 4.940286e-08
1.0252674 0.87442797 0.001614085 4288387995 -0.0011959564 -0.00058121036 0.99999875 1.1642144e-07
1.0757817 0.87708127 0.0016269957 4288387995 -0.001401506 -0.0022925576 0.99998057 0.00010709062
1.1249175 0.87572461 0.0012719963 4288387995 -0.0013770512 -0.00066326041 0.99999863 1.7324332e-07
1.1751901 0.87463814 0.0010856612 4288387995 -0.0013947882 -0.00051635975 0.99999869 2.1506398e-07
1.2253422 0.87514406 0.0010877178 4288387995 -0.0012315806 -7.1457769e-05 0.99999911 2.2620979e-07
1.2751423 0.87472242 0.0011008027 4288387995 -0.0012251898 0.00012105403 0.99999923 1.8785059e-07
1.3249032 0.8747142 0.0011499096 4288387995 -0.0012438893 0.00024317967 0.99999923 1.789948e-07
1.3750247 0.87533069 0.0012337337 4288387995 -0.0011884167 0.00028115549 0.9999994 1.6318026e-07
1.4245625 0.8740322 0.0011999988 4288387995 -0.0010975075 0.00038989607 0.99999923 1.6080737e-07
1.4752194 0.87523383 0.0013540301 4288387995 -0.0015300455 0.00034014616 0.99999839 1.2088594e-07
1.5250845 0.87435991 0.0014518658 4288387995 -0.0014874445 0.0005517297 0.99999845 1.2532389e-07
1.5750624 0.87455386 0.0014781796 4288387995 -0.0014317754 0.00066892488 0.99999857 1.1778979e-07
1.6252725 0.87486953 0.0015406358 4288387995 -0.001393275 0.00061917951 0.99999857 1.0747904e-07
1.6754608 0.87489671 0.0016513574 4288387995 -0.001391793 0.00053448637 0.99999863 1.3294667e-07
1.7250421 0.87499529 0.0016842198 4288387995 -0.0013004835 0.00068549963 0.99999863 1.0520337e-07
1.7752641 0.87510753 0.0018028277 4288322202 -0.0013724837 0.00077362964 0.99999839 7.2994204e-08
1.8252465 0.87505764 0.0017667523 4288387995 -0.0012905906 0.00085823977 0.99999857 1.4489116e-07
1.875016 0.87479532 0.0020630693 4288387995 -0.0027550154 0.0021373641 0.99997413 1.8665662e-07
1.9249654 0.87496054 0.0021658177 4288387995 -0.0010879019 0.00059603114 0.99999899 7.6680884e-08
1.9743395 0.8752628 0.0023177981 4288387995 -0.012860794 0.0076014302 0.99768972 9.2144035e-08
2.0254459 0.87462252 0.002138711 4288387995 -0.0053102244 0.0011849459 0.99966431 8.2580179e-08
2.0754483 0.87420911 0.0018313142 4288387995 -0.0013758793 -0.00040277178 0.99999791 1.0306056e-07
2.1247072 0.87509096 0.0021842537 4288387995 -0.012718966 0.0035618881 0.99927992 8.6025828e-08
2.1746252 0.87471038 0.0014800614 4288387995 -0.0010957137 -0.00082301587 0.99999881 1.867167e-07
2.2250504 0.87513876 0.001677388 4288322202 -0.0081687402 0.00011859523 0.99971753 1.049117e-07
2.2748785 0.8746354 0.0016165909 4288322202 -0.0024638453 0.00011731844 0.99997741 1.5801548e-07
2.3248906 0.87486726 0.0017334463 4288322202 -0.011781763 -0.001261966 0.99973655 0.00017360359
2.3777876 0.8769781 0.0057586222 4286940549 -0.19786783 -0.1017094 0.86847121 0.018198498
2.4260859 0.87422556 0.02208429 4280295456 -0.81222492 -0.45028576 0.18250684 0.020844119
2.4548917 0.85094464 0.027807945 4278782217 -0.81450999 -0.49946943 0.15657267 0.024033252
-2.4096913 0.91540867 0.025863115 4279571733 0.86042178 -0.5079096 0.01237595 0.0031794198
-2.3815362 0.92773068 0.021761818 4281084972 0.79165071 -0.44930887 0.1785021 0.014750299
-2.3338177 0.92884415 0.0033760599 4288322202 0.20437379 -0.086788945 0.9657712 0.020647557
-2.2737215 0.92648876 0.0034094199 4288322202 0.045498081 0.013767013 0.99468887 0.00016076567
-2.2353737 0.93175781 0.0014278181 4288256409 0.068122752 0.009384485 0.99759948 0.00082304253
-2.1730986 0.91946757 0.003208935 4288387995 0.0028845605 -0.00019744212 0.99997932 1.1581357e-08
-2.1259546 0.92520398 0.0032261147 4288387995 0.0020485532 0.00088244874 0.99989986 0
-2.0717773 0.93073839 0.0053192088 4288322202 0.12565006 0.014392509 0.55462259 0
-2.0282524 0.91821557 0.0051441407 4288387995 0.011341041 -0.00037634242 0.99988317 0
-1.9625292 0.92550117 0.003122115 4288387995 0.0090394802 0.0013479259 0.99957258 0
-1.9222931 0.91058606 0.0030144909 4288387995 0.0017705861 -0.0019529951 0.99999285 0
-1.8769965 0.93285954 0.0035474636 4288322202 0.11213725 -0.061902821 0.89176106 0
-1.8201872 0.9442836 0.0028008581 4288387995 0.0010401795 -0.00084691332 0.99999881 0
-1.7991468 0.92664111 0.00288514 4287927444 0.0014557403 -0.00014816901 0.99999893 0
-1.7285645 0.91802347 0.0051787058 4288387995 0.03939857 0.0031351955 0.9967227 3.3029846e-08
-1.6730372 0.92659134 0.003864106 4288387995 -0.0021201246 0.0005637508 0.99995112 0
-1.6402094 0.94581848 0.0025842972 4288387995 0.00063159299 -0.0015456472 0.99999863 4.7067171e-08
-1.5626645 0.90462577 0.002471636 4288387995 0.00062706158 -0.0015360294 0.99999869 0
-1.5287822 0.91806853 0.0024710661 4288387995 0.0006280684 -0.0015389359 0.99999869 0
-1.4688975 0.92948997 0.005135735 4288387995 0.0034090101 -0.00071682909 0.99998969 0
-1.3669947 0.92163867 0.0038062762 4288387995 0.016850734 -0.0052050161 0.99965096 1.0046356e-07
-1.325174 0.92398411 0.00094572117 4288387995 -0.0014359487 -0.00080790202 0.99999881 2.1163859e-07
-1.2764405 0.92435235 0.0010159392 4288387995 -0.0014377951 -0.00081402966 0.99999875 1.5767556e-07
-1.2242401 0.92126375 0.002208024 4288387995 0.10025287 -0.040300183 0.78570694 0.0040991041
-1.1709127 0.92885023 0.009481851 4287466893 -0.070056066 -0.46284845 0.67159086 0.01771003
-1.1243957 0.93310446 0.016667809 4286743170 0.071525119 -0.76831651 0.31539133 0.022297015
-1.0779392 0.93157321 0.017887788 4287664272 0.18232019 -0.74261308 0.31193456 0.01174169
-1.0311664 0.93226367 0.015504621 4288716960 0.32345089 -0.52167779 0.47672462 0.018981148
-0.98485333 0.92382663 0.018071208 4288190616 0.65885603 0.046481494 0.36966345 0.0041192658
-0.92530048 0.92632389 0.0019701174 4288387995 0.0090153785 -0.0017464084 0.99941003 0.0011212743
-0.8786509 0.92413837 0.0018763656 4288387995 0.00046868002 -0.0015256689 0.99999428 1.9273397e-08
-0.82586634 0.92483193 0.0028432768 4288387995 0.011603271 -0.0029421854 0.99956715 9.3937866e-05
-0.77493757 0.92521757 0.0020877402 4288387995 0.00037224201 -0.0022320547 0.99997318 3.2452029e-08
-0.72593707 0.92483729 0.0019693112 4288387995 0.00031028781 0.001045953 0.99998623 5.6043771e-08
-0.67612886 0.92559576 0.0022825808 4288387995 0.00036846366 -0.00093481661 0.99993676 7.5030833e-08
-0.62400478 0.92347682 0.0012509027 4288387995 0.00065593747 -0.001149477 0.99999291 8.156703e-08
-0.57502204 0.92500156 0.0017221617 4288387995 0.00086008466 -0.0017370961 0.99998134 9.2323639e-08
-0.5251289 0.92581242 0.0022189219 4288387995 0.001020927 -0.0048462618 0.99987304 1.1719543e-07
-0.47572771 0.92511213 0.0016305656 4288387995 0.00025004629 -0.0002096695 0.99998021 8.0929873e-08
-0.42582679 0.92542142 0.0017613735 4288387995 0.0008435112 -0.0014143361 0.99998397 1.1021683e-07
-0.37441209 0.92525667 0.0014175602 4288387995 0.00027171051 0.00054082932 0.99998879 5.6985325e-08
-0.32421467 0.92486382 0.001503066 4288387995 0.0017572696 -0.0010445599 0.99996448 1.0540055e-07
-0.27533314 0.92426115 0.0014101 4288387995 0.00080163666 -0.00043831766 0.99998933 8.3196163e-08
-0.225255 0.92415494 0.0010263501 4288387995 0.00046545776 -0.00038204837 0.99999964 1.5191362e-07
-0.17675912 0.92264116 0.0011923308 4288387995 0.00060380442 -0.00034916788 0.99999946 1.3941005e-07
-0.12386084 0.92253214 0.0046196091 4288387995 -0.026440253 -0.12582965 0.88554633 0.0027682753
-0.070760608 0.93369442 0.011629523 4287072135 -0.085025348 -0.44211137 0.65161157 0.021485938
-0.02585743 0.93580121 0.019963119 4286414205 -0.052414473 -0.77937192 0.27868256 0.011560807
0.021481914 0.93699557 0.025685957 4287006342 0.17890029 -0.95685494 0.069255084 0.0084456615
0.075621001 0.92137933 0.0016411599 4288322202 0.067379542 -0.21424778 0.91610676 0.032439757
0.12682825 0.92233169 0.0019281099 4288387995 0.00058524299 -0.0021547778 0.99997205 0.00010114737
0.17501728 0.92572963 0.0018482248 4288387995 -0.011538572 -0.020664856 0.99421865 0.00034766126
0.22768958 0.92582542 0.001925185 4288387995 0.00051918306 0.00014875569 0.99999893 5.4803717e-08
0.27565172 0.9266656 0.0019257627 4288387995 0.00031783219 0.00039734808 0.99999946 4.2286704e-08
0.32414249 0.92475265 0.0018118116 4288387995 0.00026496334 0.00081118272 0.99999923 4.78618e-08
0.37490222 0.92495185 0.0018742041 4288387995 0.00024935685 0.0005906428 0.99999946 5.0691124e-08
0.42491141 0.92510194 0.0020226284 4288387995 0.0013580392 -0.039643478 0.95681894 4.0622918e-08
0.47500142 0.92508125 0.0022218467 4288387995 0.0012157027 -0.028929053 0.98905694 6.0139982e-08
0.524854 0.92475408 0.0021957408 4288387995 0.00060814439 -0.018540377 0.99647474 1.7969047e-08
0.57417035 0.92497486 0.0019779743 4288387995 9.3018491e-05 0.00015068511 0.99999869 8.3389786e-08
0.62551475 0.92594475 0.0019508228 4288387995 0.00056441227 -0.0098715248 0.99882698 8.7686836e-08
0.6739071 0.92499542 0.0019498651 4288387995 0.00072091294 -0.015371549 0.99844873 7.8889379e-08
0.72560233 0.92481077 0.0019130452 4288387995 0.00045376475 0.00017948306 0.99999726 1.2281028e-07
0.77425647 0.92366421 0.0020377152 4288387995 0.00078725372 -0.020836029 0.99524546 1.1532707e-08
0.82504904 0.90868437 0.0032081283 4288387995 -0.0004001217 -0.00078221114 0.99996948 5.1920335e-09
0.8705498 0.92989296 0.0031696935 4288387995 0.0012774926 -0.075901374 0.93732464 4.0414587e-09
0.92867661 0.92750353 0.0024336595 4288322202 -0.00038837254 -0.016850937 0.99929076 3.0266972e-05
0.97504377 0.92439097 0.0019459467 4288387995 -0.035683211 0.066549979 0.92274159 0.0026142001
1.0257487 0.92505664 0.0018318209 4288322202 -0.024594082 -0.086076401 0.98320371 0.011314678
1.075603 0.92176187 0.0019333751 4288256409 -0.011375043 -0.147211 0.97940028 0.02064172
1.1245311 0.92578149 0.0013849459 4288322202 0.0073046209 -0.1891486 0.93056023 0.020747611
1.1751858 0.92448747 0.001185854 4288387995 0.0027821464 -0.02577241 0.9987461 0.0035417187
1.2251704 0.92537987 0.0012035798 4288387995 -0.00082498597 -0.0014795287 0.99998176 0.00011346553
1.2751822 0.92486542 0.001263065 4288387995 -0.0012150821 -8.2849168e-05 0.99999923 1.2614464e-07
1.3253639 0.92440575 0.0011587623 4288387995 -0.0011388749 0.00020630253 0.99999946 1.1155664e-07
1.3751307 0.92556936 0.001173969 4288387995 -0.0010143972 0.0003819688 0.99999928 1.8299055e-07
1.4252975 0.92448008 0.0012171916 4288387995 -0.0010193891 0.00047672141 0.9999994 2.0091449e-07
1.4750922 0.92498827 0.0013533784 4288387995 -0.0015213341 0.00054435112 0.99999833 1.248157e-07
1.525437 0.9249174 0.0015306408 4288387995 -0.0015513184 0.00062207686 0.99999815 1.6381277e-07
1.5748485 0.92504001 0.0015311727 4288387995 -0.0013797007 0.00074779749 0.99999839 1.9284424e-07
1.6253098 0.92515826 0.0013041251 4288322202 -0.0012120641 0.001238938 0.99999827 1.5354946e-07
1.6747795 0.92525262 0.001637725 4288387995 -0.0013149582 0.00075232016 0.99999863 1.2632158e-07
1.7248605 0.92544848 0.0017665982 4288322202 -0.0013470798 0.0009459728 0.99999857 1.0254475e-07
1.7750919 0.92462385 0.0017616833 4288387995 -0.001275378 0.00089431345 0.99999845 7.1634226e-08
1.8252701 0.92436987 0.0017666254 4288387995 -0.001326801 0.00096998835 0.99999845 7.497534e-08
1.8749617 0.92530996 0.0020283393 4288387995 -0.0015130449 0.00066823943 0.9999975 1.361216e-07
1.9248348 0.92522895 0.0021536043 4288387995 -0.001067955 0.0011606696 0.99999654 1.5863282e-07
1.9759086 0.92439675 0.0019708744 4288387995 -0.00064209505 0.00056086906 0.99999672 8.3007272e-08
2.0248098 0.92507935 0.0021503756 4288387995 -0.014277359 0.0056185997 0.99884003 1.1593309e-07
2.075011 0.92518008 0.0016946718 4288387995 -0.0014212501 -0.00044258381 0.99999845 1.6983796e-07
2.124754 0.92487472 0.0014723545 4288387995 -0.0011454447 -0.00061599276 0.99999881 1.7340352e-07
2.1748753 0.92527145 0.001697872 4288387995 -0.007531655 0.0026723836 0.99945009 4.3428895e-06
2.224858 0.92471427 0.0017109341 4288387995 -0.0020505229 -0.001070564 0.9999941 8.852701e-08
2.2747369 0.92536509 0.0014264898 4288387995 -0.0037574035 0.0011168187 0.99992639 7.1776699e-06
2.3240392 0.92493922 0.0018424551 4288322202 -0.050748434 0.0082194358 0.99744821 0.0017440805
2.3840787 0.93062156 0.015454852 4282664004 -0.60417712 -0.32601765 0.41915035 0.021171903
2.4107137 0.91525584 0.025768638 4279111182 -0.86212605 -0.49484095 0.046840321 0.0074469573
-2.3692796 0.97278607 0.024722535 4279769112 0.86561167 -0.48869643 0.026890233 0.0048098373
-2.3336403 0.97939503 0.017924767 4283058762 0.65531433 -0.30211723 0.37142009 0.013239669
-2.2759559 0.97282618 0.0029801221 4288387995 0.061579369 -0.041038517 0.99204618 0.0036444725
-2.2320013 0.97618407 0.0021873901 4288322202 0.02939049 0.0033191063 0.99911976 1.6582617e-06
-2.1764154 0.97790015 0.003000529 4288322202 0.0035409655 0.00016277426 0.99986428 0
-2.1227601 0.97582591 0.003647079 4288387995 -0.0062886663 0.0039406987 0.99987304 0
-2.0761929 0.97686547 0.0045676245 4288387995 0.11403038 0.012883002 0.62825161 0
-2.0127132 0.96885407 0.0034702404 4288387995 0.0055024121 -0.0019539702 0.99994737 0
-1.9742455 0.98062778 0.0031281302 4288387995 0.004078004 -6.9986585e-05 0.99974251 0
-1.9380831 0.99344778 0.0028460457 4288387995 0.00063076225 -0.0015450843 0.99999863 0
-1.8740237 0.97799814 0.0042054253 4288387995 0.00037323256 -0.0029692999 0.99993753 0
-1.8115416 0.96953964 0.0028366554 4288387995 -0.0064743073 -0.0021496881 0.9998526 0
-1.7769753 0.97045517 0.0027087233 4288387995 0.00062995998 -0.0015424034 0.99999869 7.0258146e-08
-1.73218 0.98197609 0.0056743179 4288322202 0.025519356 0.001928993 0.7802422 2.3552268e-08
-1.6634086 0.97828865 0.0034284578 4288190616 0.0044931583 -0.0011217886 0.9999755 0
-1.6278886 0.97175312 0.0036441896 4288387995 0.001392681 -0.00091070379 0.99995971 5.0201521e-08
-1.5735043 0.97224504 0.0025831021 4288387995 0.00063107925 -0.0015470713 0.99999869 3.0224161e-08
-1.5269662 0.99068278 0.0025822239 4288387995 0.00063083501 -0.0015441593 0.99999857 0
-1.4686475 0.97628117 0.0074952571 4288387995 -7.1215254e-05 -0.0054339762 0.99990642 3.0342557e-05
-1.3550068 0.97004092 0.0043639815 4288387995 -0.0035917645 0.0017497032 0.99998164 0
-1.3178293 0.9772619 0.0017802357 4288387995 -0.016791588 -0.038448676 0.99640584 0.00038945395
-1.2769433 0.9748196 0.0010556894 4288387995 -0.0014345254 -0.00080578995 0.99999875 7.0331787e-08
-1.2182195 0.98142803 0.02064858 4285756275 -0.50582296 -0.64255518 0.2717573 0.014675918
-1.177277 0.96669102 0.024725646 4285098345 -0.3960264 -0.8366437 0.14347655 0.019246472
-1.1276678 0.95672596 0.023377294 4285493103 -0.084835976 -0.95508057 0.12631595 0.025524475
-1.0699948 0.96126014 0.024576105 4287730065 0.27070835 -0.93402553 0.088511564 0.014716
-1.0229594 0.97185618 0.025170386 4289440683 0.61813247 -0.68838036 0.079965331 0.011907769
-0.98615056 0.97785056 0.018385781 4289769648 0.62776393 -0.43843794 0.29488942 0.018494762
-0.92190379 0.97477931 0.0014294966 4288387995 0.034181349 -0.038838074 0.99216551 0.0044371062
-0.87821651 0.97444737 0.0018265106 4288387995 0.013941304 -0.0058373427 0.99939728 0.00096222974
-0.82697833 0.97626895 0.0017637026 4288387995 0.0063970545 -0.0083713299 0.99946696 0.00016253737
-0.77405703 0.97720391 0.002452028 4288387995 0.0031191611 -0.0027522165 0.99995899 2.0588203e-08
-0.7240898 0.97647876 0.0017767685 4288387995 0.0020600157 -0.0015479921 0.99996847 3.9513562e-08
-0.67409647 0.97640443 0.0015192205 4288387995 6.3743493e-05 0.00083394715 0.99999893 1.1454998e-07
-0.62597471 0.97478342 0.0014356445 4288387995 0.00020421311 0.00066458841 0.99999911 8.5964125e-08
-0.57507569 0.97565949 0.0012661751 4288387995 0.00076438533 0.0005790185 0.9999972 9.0690257e-08
-0.5250628 0.97556895 0.0016339977 4288387995 0.00035131254 0.00076847355 0.99999905 8.8483354e-08
-0.47420004 0.9759379 0.0017879833 4288387995 0.0040244129 -0.0023084418 0.99979651 1.4131943e-07
-0.42375162 0.97434694 0.001488972 4288387995 -9.0916292e-06 0.00084923953 0.99998432 1.0184022e-07
-0.3749485 0.97590262 0.0014396313 4288387995 0.00040465489 0.00049550633 0.99999928 9.8203564e-08
-0.32509893 0.9743188 0.0016209137 4288387995 0.00037802671 -0.000547626 0.9999966 1.1518468e-07
